# .PCD v0.7 - Point Cloud Data file format
VERSION 0.7
FIELDS x y z intensity
SIZE 4 4 4 4 
TYPE F F F F 
COUNT 1 1 1 1 
WIDTH 1432
HEIGHT 1
VIEWPOINT 0 0 0 1 0 0 0
POINTS 1432
DATA ascii
-28.573320 -29.012306 4.343303 6
-73.900597 -75.499031 7.005335 38
-73.831764 -75.432137 5.149709 34
-63.999123 -65.350861 3.060346 13
-63.509773 -64.852074 1.459088 16
-64.408134 -65.776718 -0.153187 25
-23.466484 -23.783367 -0.877252 6
-16.925470 -17.073252 -0.645925 71
-13.753534 -13.819259 -0.595226 3
-6.272194 -6.143006 0.374903 0
-6.130371 -5.997461 0.242634 7
-5.973512 -5.836476 0.120240 1
-5.878829 -5.739285 -0.010711 255
-5.925297 -5.786958 -0.177114 1
-6.182446 -6.050881 -0.411271 4
-5.655109 -5.509603 -0.400149 4
-5.205949 -5.048518 -0.390419 6
-4.842487 -4.675358 -0.390983 7
-4.512927 -4.336967 -0.387230 5
-74.512077 -75.609352 26.023283 42
-74.442230 -75.542152 24.054100 36
-74.388336 -75.491165 22.107225 39
-25.336878 -25.524403 7.868014 18
-25.418627 -25.608789 7.236388 20
-25.387218 -25.577887 6.581495 20
-27.552967 -27.785675 6.315361 5
-28.493143 -28.744886 5.759352 18
-28.503962 -28.757168 5.042951 18
-28.718382 -28.976933 4.348377 9
-73.995682 -75.121574 6.994214 38
-73.940514 -75.069099 5.142836 31
-71.479080 -72.564056 3.237568 16
-63.789730 -64.729965 1.458606 14
-64.654556 -65.614716 -0.154635 13
-63.293175 -64.230156 -1.699966 6
-39.939751 -40.425514 -1.522487 4
-23.623096 -23.792376 -0.885549 8
-17.010689 -17.051584 -0.649894 87
-13.806199 -13.784859 -0.596583 3
-6.303533 -6.135023 0.372901 0
-6.197268 -6.026720 0.233101 3
-6.025938 -5.852057 0.112669 0
-5.919809 -5.743874 -0.016324 255
-5.971840 -5.796990 -0.184805 1
-6.207795 -6.037713 -0.412985 4
-5.681456 -5.500913 -0.402897 7
-5.225370 -5.035720 -0.391429 4
-4.866122 -4.669267 -0.394132 11
-4.530066 -4.326438 -0.388370 4
-74.610657 -75.233459 25.976948 46
-74.551048 -75.177116 24.014563 38
-74.485474 -75.114708 22.067856 42
-25.550861 -25.579298 7.901111 18
-25.641577 -25.672310 7.268051 21
-25.593721 -25.625029 6.606306 20
-27.682970 -27.741606 6.322459 6
-28.726854 -28.799896 5.780404 16
-28.743536 -28.818115 5.061153 16
-28.913971 -28.992039 4.358447 12
-74.091942 -74.747093 6.983303 44
-74.039299 -74.697578 5.135550 44
-73.997673 -74.659218 3.292811 50
-64.457359 -64.999550 1.457927 20
-65.485023 -66.043793 -0.170898 13
-60.535534 -61.033218 -1.551780 10
-40.011295 -40.243774 -1.518553 9
-23.774256 -23.795570 -0.893289 10
-17.065012 -16.998970 -0.650017 72
-13.861439 -13.753708 -0.598362 2
-6.415616 -6.209466 0.356719 0
-6.158549 -5.949101 0.244772 4
-6.083930 -5.873606 0.103841 1
-5.963502 -5.751679 -0.022635 255
-6.864940 -6.665420 -0.427239 0
-6.227486 -6.019490 -0.413034 5
-5.704925 -5.489953 -0.404746 12
-5.241895 -5.020704 -0.391473 4
-4.876059 -4.649938 -0.392100 15
-4.547042 -4.316461 -0.389513 7
-74.718597 -74.868774 25.934208 46
-74.647270 -74.801056 23.971708 36
-74.592064 -74.749535 22.031536 37
-25.773769 -25.641481 7.936286 14
-25.848461 -25.717869 7.295968 21
-25.795183 -25.665506 6.630004 21
-27.787773 -27.671650 6.325183 6
-28.958385 -28.850903 5.801039 15
-28.986578 -28.880671 5.079702 16
-29.104309 -29.000547 4.367961 12
-74.203468 -74.389763 6.973642 42
-74.147751 -74.337532 5.128820 31
-74.151031 -74.344673 3.290316 12
-64.591667 -64.726418 1.457516 36
-65.360466 -65.503624 -0.162946 16
-64.083199 -64.221207 -1.720170 17
-40.000446 -39.979805 -1.508505 23
-23.953781 -23.826363 -0.903835 11
-17.113548 -16.940527 -0.649440 45
-13.916613 -13.722349 -0.600141 2
-6.489056 -6.243828 0.347380 0
-6.208708 -5.961724 0.238584 1
-6.117058 -5.869619 0.100658 0
-6.012847 -5.764860 -0.030339 255
-6.894907 -6.653430 -0.429587 3
-6.247116 -6.001205 -0.413084 4
-5.709153 -5.459540 -0.400286 23
-5.261101 -5.008389 -0.392485 4
-4.891356 -4.636076 -0.392141 25
-4.561282 -4.303691 -0.389553 4
-74.819458 -74.498642 25.889675 41
-74.772293 -74.455574 23.937988 33
-74.677643 -74.365013 21.989889 39
-74.772346 -74.463722 20.106600 16
-26.025145 -25.731659 7.317016 19
-25.997145 -25.704977 6.653702 21
-27.886787 -27.595699 6.326935 5
-29.196142 -28.906370 5.822505 15
-29.238741 -28.950441 5.099289 15
-29.317549 -29.030720 4.379694 14
-74.313461 -74.032486 6.963983 39
-74.257469 -73.980377 5.122230 27
-74.246574 -73.973358 3.286454 13
-64.696602 -64.424805 1.457120 32
-68.705368 -68.438202 -0.242501 7
-64.568115 -64.303024 -1.734719 11
-35.134037 -34.859982 -1.136096 24
-24.099874 -23.822397 -0.911016 7
-17.178778 -16.898863 -0.650963 7
-13.974530 -13.693595 -0.602340 2
-6.523478 -6.238479 0.344885 0
-6.239400 -5.954479 0.236303 5
-6.147418 -5.862691 0.098101 0
-6.053970 -5.769428 -0.035955 255
-6.922081 -6.638543 -0.431171 4
-6.269447 -5.985627 -0.413967 4
-5.724254 -5.440186 -0.399431 37
-5.277529 -4.993258 -0.392529 6
-4.895683 -4.611233 -0.388036 34
-4.575475 -4.290877 -0.389592 3
-74.910454 -74.120377 25.842449 46
-74.887558 -74.101761 23.901775 29
-74.786613 -74.005585 21.955095 37
-74.858856 -74.081421 20.069349 27
-26.235804 -25.778008 7.345553 19
-26.208042 -25.751806 6.679063 20
-28.002502 -27.536190 6.331603 5
-29.437353 -28.963430 5.844386 13
-29.491629 -29.018906 5.118875 13
-29.551075 -29.079525 4.393369 14
-74.410629 -73.663979 6.953494 39
-74.340172 -73.597893 5.114399 37
-74.297974 -73.559875 3.281570 58
-65.092484 -64.413620 1.456574 26
-67.000664 -66.313873 -0.194716 11
-62.729458 -62.071419 -1.633594 18
-35.184738 -34.691078 -1.131914 6
-24.223537 -23.795240 -0.915954 4
-17.399324 -17.011477 -0.671741 3
-14.032399 -13.664613 -0.604538 2
-6.608596 -6.283362 0.333589 0
-6.379636 -6.056025 0.212254 1
-6.197398 -5.875130 0.091153 0
-6.097967 -5.776574 -0.042267 255
-6.946439 -6.620781 -0.431990 4
-6.291735 -5.969966 -0.414850 4
-5.739282 -5.420791 -0.398577 39
-5.291154 -4.975337 -0.391604 4
-4.910849 -4.597307 -0.388077 41
-4.589623 -4.278015 -0.389631 6
-75.008118 -73.750504 25.797920 45
-75.023621 -73.769974 23.872210 27
-74.871712 -73.624168 21.914211 35
-74.974533 -73.729790 20.039730 39
-26.486370 -25.862154 7.382829 17
-26.425117 -25.803133 6.705534 20
-28.132238 -27.490181 6.338700 5
-29.676371 -29.016466 5.865847 12
-29.736721 -29.077675 5.137417 13
-29.790871 -29.132767 4.407597 15
-74.531769 -73.320862 6.944879 29
-74.469543 -73.263397 5.108919 27
-74.452782 -73.250809 3.279217 14
-65.235649 -64.150406 1.456159 33
-67.283508 -66.176819 -0.197030 10
-35.189262 -34.477264 -1.124357 13
-24.611244 -24.028318 -0.946980 1
-17.459181 -16.963207 -0.672564 3
-14.081733 -13.626985 -0.605479 3
-11.850523 -11.423046 -0.570547 3
-6.500848 -6.137228 0.192111 2
-6.236275 -5.876174 0.086714 0
-6.265339 -5.905296 -0.079206 4
-6.976336 -6.608421 -0.434338 4
-6.311201 -5.951443 -0.414900 4
-5.754241 -5.401324 -0.397722 43
-5.318515 -4.970990 -0.395523 6
-4.925972 -4.583300 -0.388118 41
-4.595530 -4.256968 -0.386359 4
-75.109985 -73.385300 25.755196 44
-75.136292 -73.414772 23.836010 24
-74.983589 -73.268608 21.880959 37
-75.117378 -73.403465 20.017052 18
-26.760893 -25.964386 7.425109 19
-26.646311 -25.852940 6.732572 20
-28.240097 -27.417742 6.341926 5
-29.914082 -29.061405 5.886909 11
-30.000547 -29.147387 5.158060 14
-30.043793 -29.190960 4.422956 15
-74.629906 -72.949867 6.934628 28
-74.593437 -72.921486 3.276550 16
-65.841675 -64.334404 1.455529 30
-67.693260 -66.154999 -0.202451 16
-65.837303 -64.336151 -1.768759 9
-35.245811 -34.306374 -1.120558 16
-24.837322 -24.088846 -0.961702 1
-17.543562 -16.928396 -0.676150 3
-14.138660 -13.585637 -0.607216 3
-11.880772 -11.368827 -0.569122 3
-6.508975 -6.093915 0.194897 1
-6.288806 -5.877620 0.079814 0
-6.332009 -5.919964 -0.090343 3
-6.994731 -6.570789 -0.432810 4
-6.336017 -5.923749 -0.415729 5
-5.777408 -5.374974 -0.398613 42
-5.337640 -4.942881 -0.395509 4
-4.938457 -4.550614 -0.386026 50
-4.618076 -4.235726 -0.388544 4
-75.204498 -73.015648 25.710670 42
-75.196739 -73.011803 23.784864 23
-75.085129 -72.906677 21.845411 34
-75.210449 -73.032501 19.982582 11
-26.990458 -26.023754 7.457386 21
-26.870220 -25.907570 6.760148 19
-28.355516 -27.356863 6.346592 5
-30.148630 -29.106466 5.907535 11
-30.261261 -29.217503 5.178334 14
-30.287716 -29.244507 4.437458 14
-74.736694 -72.595612 6.925185 30
-74.665405 -72.529610 5.095089 28
-74.694313 -72.561325 3.272972 18
-68.094627 -66.127319 1.453985 24
-67.904587 -65.945114 -0.202982 16
-35.314262 -34.157162 -1.117848 12
-24.950871 -24.047712 -0.965522 1
-17.620327 -16.896309 -0.679074 3
-14.182114 -13.542056 -0.607317 2
-11.920105 -11.335182 -0.569697 3
-6.537416 -6.082758 0.193173 0
-6.330670 -5.880986 0.074748 1
-6.447219 -5.994718 -0.114059 1
-7.024557 -6.558201 -0.435158 5
-6.360971 -5.910529 -0.417445 5
-5.792243 -5.355381 -0.397758 40
-5.353896 -4.927452 -0.395552 4
-4.956235 -4.539196 -0.387104 47
-4.632091 -4.222675 -0.388583 4
-75.305855 -72.654274 25.668842 46
-75.241364 -72.595558 23.729567 39
-75.199257 -72.558510 21.813675 37
-75.352875 -72.711029 19.960592 11
-27.212152 -26.073692 7.487789 19
-27.108963 -25.974833 6.790499 18
-28.482243 -27.306581 6.353203 6
-30.378046 -29.144802 5.927325 12
-30.522717 -29.286270 5.198606 16
-30.549467 -29.313473 4.453622 12
-74.827660 -72.227501 6.914705 39
-74.839302 -72.242355 5.091961 23
-68.070244 -65.688454 1.453648 21
-74.722717 -72.140381 -0.367715 12
-64.106583 -61.852436 -1.664641 17
-35.327629 -33.955036 -1.111131 3
-25.030024 -23.972786 -0.965975 1
-17.677034 -16.844501 -0.679548 3
-14.239708 -13.512197 -0.609516 3
-11.965035 -11.306943 -0.571249 3
-6.602807 -6.107341 0.184191 0
-6.386790 -5.897913 0.066544 0
-6.523368 -6.030427 -0.128031 2
-7.045907 -6.537302 -0.435212 4
-6.383088 -5.894500 -0.418328 4
-5.815392 -5.343901 -0.399607 41
-5.372883 -4.914683 -0.396565 4
-4.976752 -4.530414 -0.389218 39
-4.646059 -4.209589 -0.388622 4
-75.400055 -72.287575 25.625219 48
-75.337654 -72.231316 23.690048 38
-75.331741 -72.229393 21.787273 39
-75.357796 -72.258232 19.905333 41
-27.405956 -26.095087 7.511949 19
-27.371220 -26.062832 6.825289 14
-28.588903 -27.236498 6.356411 5
-30.616589 -29.190262 5.948364 11
-30.784897 -29.353682 5.218875 12
-30.820566 -29.389383 4.470617 11
-75.475227 -72.397118 6.944536 14
-75.461288 -72.387344 5.110367 22
-75.651817 -72.574509 3.283835 12
-69.003212 -66.173943 1.452794 21
-75.272522 -72.216454 -0.376213 32
-35.371712 -33.783646 -1.106732 40
-25.111820 -23.900358 -0.966709 1
-17.762280 -16.820141 -0.683523 3
-14.288655 -13.473820 -0.610456 2
-12.001325 -11.270258 -0.571335 3
-10.276309 -9.608343 -0.530973 2
-6.440226 -5.911793 0.058968 1
-7.915783 -7.334005 -0.465012 0
-7.064363 -6.513601 -0.434501 4
-6.399526 -5.872951 -0.417544 4
-5.832908 -5.326910 -0.399653 47
-5.391834 -4.901835 -0.397577 4
-4.986131 -4.510814 -0.387185 40
-4.662749 -4.199118 -0.389765 4
-75.594086 -72.018013 25.613937 20
-75.599228 -72.026787 23.699505 24
-75.647324 -72.076622 21.810381 21
-75.955551 -72.375313 19.994925 10
-27.645838 -26.159233 7.546093 17
-27.697256 -26.209688 6.872290 14
-28.706877 -27.176998 6.361564 5
-30.849962 -29.229013 5.968566 11
-31.050671 -29.422497 5.239489 15
-31.080906 -29.452854 4.486500 11
-76.081299 -72.521950 6.971246 16
-76.076241 -72.520836 5.128353 23
-69.373444 -66.112511 1.452240 31
-75.930336 -72.392517 -0.387359 32
-66.681633 -63.542389 -1.772386 16
-35.438141 -33.634426 -1.104020 62
-25.181871 -23.816631 -0.966320 1
-17.833147 -16.781651 -0.685748 3
-14.337492 -13.435282 -0.611396 2
-12.046094 -11.241710 -0.572888 3
-10.307252 -9.577041 -0.531047 3
-6.502362 -5.933607 0.049510 0
-7.945258 -7.315693 -0.466463 5
-7.091236 -6.498008 -0.436084 4
-6.418705 -5.854075 -0.417594 6
-5.855992 -5.315265 -0.401501 38
-5.402340 -4.880875 -0.395682 3
-5.006582 -4.501901 -0.389300 40
-4.676631 -4.185934 -0.389804 4
-76.227921 -72.166855 25.742781 26
-76.228958 -72.171776 23.816875 23
-76.270073 -72.214775 21.915747 24
-27.940777 -26.273954 7.592094 18
-27.967049 -26.300268 6.908185 18
-28.836248 -27.128071 6.368658 5
-31.060795 -29.244759 5.985436 9
-31.320045 -29.492775 5.260448 12
-31.362165 -29.534323 4.504323 11
-76.853867 -72.800713 7.009791 8
-76.701454 -72.659554 5.146748 24
-76.849991 -72.804634 3.300277 32
-76.612877 -72.582901 1.447872 16
-76.595840 -72.570480 -0.398651 31
-35.633598 -33.606720 -0.249367 15
-35.492405 -33.474125 -1.100462 61
-25.303677 -23.782219 -0.970982 1
-17.886620 -16.726410 -0.685872 3
-14.391985 -13.402066 -0.613175 2
-12.093672 -11.215738 -0.574930 3
-10.340961 -9.548382 -0.531680 3
-9.025780 -8.297228 -0.499450 2
-7.968980 -7.291850 -0.466523 6
-7.112381 -6.476908 -0.436138 4
-6.443487 -5.840542 -0.419310 4
-5.873404 -5.298166 -0.401547 35
-5.418377 -4.865260 -0.395726 4
-5.018620 -4.484924 -0.388304 46
-4.696033 -4.178019 -0.392051 4
-76.860580 -72.309776 25.870722 16
-76.914368 -72.364594 23.950006 19
-76.945801 -72.398270 22.034819 22
-28.196531 -26.348938 7.629356 20
-28.214676 -26.367489 6.939638 20
-28.933878 -27.048452 6.370409 4
-31.295195 -29.281176 6.005637 8
-31.593092 -29.564236 5.281752 10
-31.629766 -29.600458 4.520757 11
-38.444462 -36.042488 4.244761 2
-77.368980 -72.833351 5.167071 25
-77.254204 -72.732643 1.447130 34
-77.423042 -72.896103 -0.413879 16
-35.534382 -33.302872 -1.096061 59
-17.977541 -16.706648 -0.690549 3
-14.449280 -13.371431 -0.615375 3
-12.138299 -11.186911 -0.576483 3
-10.383204 -9.527827 -0.533987 3
-9.052576 -8.269984 -0.499516 9
-7.992611 -7.267987 -0.466582 5
-7.139149 -6.461193 -0.437722 4
-6.456856 -5.816216 -0.417693 4
-5.890744 -5.281068 -0.401594 42
-5.442805 -4.857651 -0.398677 4
-5.030579 -4.467974 -0.387308 43
-4.698652 -4.154226 -0.387674 4
-77.560257 -72.510765 26.019314 23
-77.638847 -72.588623 24.093924 13
-77.629166 -72.583603 22.155407 21
-28.429985 -26.400936 7.661623 20
-28.454340 -26.425280 6.969424 19
-29.106550 -27.039150 6.384792 1
-31.506926 -29.294615 6.022503 7
-31.869801 -29.636993 5.303401 9
-31.901005 -29.667936 4.537466 11
-78.118248 -73.074738 7.066300 13
-78.035446 -73.000923 5.187250 42
-78.054039 -73.022339 3.316703 58
-77.917641 -72.898170 1.446372 37
-77.961548 -72.943359 -0.421968 46
-35.587311 -33.142490 -1.092502 59
-18.056940 -16.675350 -0.693824 3
-14.494971 -13.329460 -0.615895 2
-12.174227 -11.149544 -0.576568 3
-10.419689 -9.501465 -0.535177 3
-9.087967 -8.250556 -0.501463 16
-8.016211 -7.243834 -0.466640 5
-7.163066 -6.442472 -0.438540 4
-6.478728 -5.799689 -0.418575 4
-5.908074 -5.263699 -0.401639 42
-5.461622 -4.844406 -0.399689 4
-5.048149 -4.456072 -0.388385 41
-4.718012 -4.146047 -0.389920 7
-78.227951 -72.675262 26.157129 21
-78.309021 -72.758560 22.274475 11
-78.675621 -73.104134 20.428778 27
-28.638544 -26.425203 7.688281 18
-28.666281 -26.452076 6.993669 16
-29.193060 -26.944588 6.384613 5
-31.714035 -29.297951 6.038552 6
-32.162746 -29.717810 5.326801 9
-32.185646 -29.740343 4.555303 9
-38.912643 -36.019535 4.261301 4
-78.567566 -73.031364 5.200966 34
-78.601059 -73.066093 3.323573 34
-78.610596 -73.078468 1.445621 36
-78.634178 -73.103951 -0.433246 35
-35.632420 -32.966682 -1.088275 60
-18.138020 -16.636015 -0.697065 3
-14.553969 -13.290034 -0.618056 2
-12.229348 -11.119703 -0.579548 3
-10.452320 -9.460491 -0.535210 3
-9.102326 -8.199892 -0.498348 22
-8.044815 -7.212315 -0.467350 5
-7.192105 -6.415910 -0.440075 4
-6.508678 -5.777534 -0.421074 4
-5.933550 -5.240250 -0.403436 39
-5.474503 -4.811345 -0.397739 4
-5.062748 -4.426574 -0.387333 41
-4.734550 -4.119826 -0.389901 4
-78.942978 -72.879608 26.309303 24
-78.996986 -72.933357 24.353529 28
-79.019318 -72.957726 22.401148 24
-79.053383 -72.992958 20.463600 27
-28.867401 -26.469172 7.719297 18
-28.892675 -26.493671 7.020678 15
-29.316498 -26.887703 6.390737 6
-31.920761 -29.303591 6.054586 4
-32.444012 -29.790012 5.348794 10
-32.473080 -29.818197 4.573396 10
-39.067646 -35.935226 4.263952 2
-79.257812 -73.211121 5.222103 34
-79.300392 -73.254158 3.333956 34
-79.310005 -73.266624 1.444835 38
-79.330635 -73.289314 -0.445130 34
-35.678204 -32.800594 -1.084291 59
-18.313831 -16.693186 -0.711899 25
-11.555159 -10.422732 -0.180314 13
-12.259332 -11.076353 -0.578654 3
-10.485812 -9.430882 -0.535841 3
-9.128948 -8.171894 -0.498412 27
-8.071217 -7.190380 -0.468103 5
-7.210233 -6.391365 -0.439362 4
-6.524802 -5.755207 -0.420288 4
-5.950845 -5.222451 -0.403480 42
-5.496130 -4.800327 -0.399719 4
-5.083130 -4.416885 -0.389445 48
-4.751115 -4.108586 -0.391042 5
-79.672874 -73.096054 24.481659 22
-79.717049 -73.140495 22.524002 22
-79.741127 -73.166397 20.572565 28
-29.131544 -26.544754 7.757797 18
-29.203960 -26.612612 7.063776 16
-29.521482 -26.906309 6.410460 3
-32.104286 -29.287321 6.067283 3
-32.734699 -29.869507 5.371823 12
-32.758228 -29.892494 4.591206 10
-79.958580 -73.396309 5.243643 31
-80.001480 -73.439468 3.344330 31
-80.017052 -73.457451 1.444035 39
-80.037643 -73.480064 -0.457240 35
-35.720158 -32.632767 -1.080099 56
-11.579187 -10.378827 0.099667 10
-11.559337 -10.360808 -0.176199 19
-12.303549 -11.047306 -0.580209 3
-10.521924 -9.404769 -0.537034 3
-9.146565 -8.136703 -0.496597 31
-8.100247 -7.171949 -0.469556 5
-7.239613 -6.378345 -0.441712 4
-6.552145 -5.744371 -0.422840 5
-5.967877 -5.205521 -0.403528 42
-5.511827 -4.784885 -0.399764 4
-5.094773 -4.400181 -0.388451 46
-4.761792 -4.092995 -0.389978 4
-80.382362 -73.283958 24.618914 20
-80.408066 -73.311310 22.644569 21
-80.448219 -73.351868 20.685680 26
-29.399426 -26.621275 7.796921 14
-29.492966 -26.708126 7.102434 18
-19.181870 -17.268669 4.680939 2
-32.326233 -29.304783 6.085393 2
-33.020390 -29.941755 5.394157 14
-33.050121 -29.970358 4.609570 10
-39.191399 -35.595795 4.256169 2
-80.676201 -73.590469 5.265871 30
-80.719421 -73.633759 3.355042 32
-80.717400 -73.635605 1.443239 37
-80.740913 -73.660843 -0.469207 33
-35.761589 -32.464146 -1.075901 59
-11.743818 -10.462458 0.364930 0
-11.577454 -10.310390 0.103793 20
-11.557596 -10.292544 -0.171239 21
-12.347923 -11.017047 -0.581759 4
-10.558195 -9.377480 -0.538222 3
-9.170095 -8.105777 -0.496033 35
-8.126555 -7.149702 -0.470309 5
-7.263411 -6.358854 -0.442528 5
-6.568165 -5.721805 -0.422053 4
-5.985079 -5.187493 -0.403571 40
-5.527698 -4.768349 -0.399805 3
-5.109426 -4.385014 -0.388489 47
-4.772636 -4.076335 -0.388910 4
-81.096710 -73.470741 24.756994 20
-81.135818 -73.510216 22.774267 23
-81.171844 -73.546867 20.802254 26
-81.187607 -73.565063 18.836195 18
-29.753555 -26.775425 7.135540 18
-29.724277 -26.750074 6.415416 4
-32.439732 -29.222075 6.088097 3
-33.309803 -30.015182 5.416835 14
-33.351673 -30.054733 4.628764 10
-81.395737 -73.781227 5.288091 30
-81.424500 -73.811188 3.365407 33
-81.443230 -73.832008 1.442421 35
-81.472626 -73.862556 -0.481827 34
-35.814034 -32.306747 -1.072549 59
-11.759768 -10.410284 0.366534 0
-11.581152 -10.248088 0.107217 22
-11.558334 -10.227725 -0.166701 22
-12.392083 -10.987275 -0.583313 4
-10.597181 -9.353376 -0.539972 3
-9.199216 -8.080757 -0.496726 39
-8.146832 -7.122711 -0.469672 5
-7.278302 -6.332001 -0.441052 4
-6.592636 -5.707751 -0.423770 4
-6.007841 -5.175312 -0.405420 39
-5.546239 -4.755028 -0.400818 4
-5.126740 -4.373054 -0.389567 47
-4.791799 -4.068069 -0.391158 3
-81.813034 -73.653778 24.895067 19
-81.862694 -73.702637 22.903202 19
-81.909180 -73.748611 20.921595 25
-81.941101 -73.781403 18.946741 23
-29.988415 -26.817450 7.163649 19
-29.968218 -26.800545 6.441452 16
-32.638607 -29.216324 6.102875 5
-33.602955 -30.089762 5.439858 9
-33.648163 -30.132162 4.647400 11
-39.398415 -35.333599 4.254410 2
-82.120293 -73.970589 5.310445 31
-82.161217 -74.011452 3.376447 30
-82.185982 -74.037712 1.441590 34
-82.209442 -74.062782 -0.494523 35
-35.851097 -32.135662 -1.068139 58
-11.745974 -10.331056 0.370946 0
-11.587588 -10.188248 0.110291 23
-11.564738 -10.168053 -0.163001 22
-12.430347 -10.951715 -0.583886 4
-10.633241 -9.326174 -0.541162 3
-9.225396 -8.052695 -0.496790 42
-8.175838 -7.103303 -0.471122 5
-7.304797 -6.315364 -0.442635 4
-6.611339 -5.688061 -0.423818 4
-6.024861 -5.157517 -0.405465 39
-5.561930 -4.738744 -0.400860 4
-5.141221 -4.358146 -0.389607 48
-4.799610 -4.049111 -0.388987 3
-82.554581 -73.853951 25.039774 17
-82.579872 -73.880722 23.029079 22
-82.633904 -73.933289 21.037464 26
-82.652641 -73.954132 19.047924 28
-30.214983 -26.850323 7.190091 17
-30.209806 -26.847097 6.467000 18
-32.787449 -29.164415 6.110574 2
-33.905788 -30.170788 5.463920 10
-33.942490 -30.205359 4.665757 10
-82.864632 -74.172348 5.333620 30
-82.896950 -74.205330 3.387413 34
-82.918877 -74.228958 1.440759 35
-82.930405 -74.243256 -0.506795 36
-35.887390 -31.964836 -1.063729 56
-11.737688 -10.257532 0.374798 0
-11.593716 -10.128648 0.113366 23
-11.570836 -10.108622 -0.159302 23
-12.474369 -10.921515 -0.585439 3
-10.672131 -9.301664 -0.542911 3
-9.263196 -8.035294 -0.499366 45
-8.198897 -7.078695 -0.471181 5
-7.325373 -6.293554 -0.442688 4
-6.632844 -5.671104 -0.424700 5
-6.047577 -5.145059 -0.407313 36
-5.577524 -4.722587 -0.400903 4
-5.158482 -4.345953 -0.390684 43
-4.818733 -4.040609 -0.391234 4
-83.266083 -74.021530 25.175346 21
-83.325363 -74.078568 23.161810 22
-83.360603 -74.114136 21.153328 24
-83.407341 -74.159950 19.157835 29
-30.501156 -26.934795 7.227630 16
-19.984854 -17.547909 4.776116 2
-32.915516 -29.093311 6.115357 2
-34.221352 -30.260824 5.489366 9
-34.249516 -30.287634 4.685220 10
-83.605110 -74.364731 5.356512 30
-83.640709 -74.400536 3.398509 32
-83.656784 -74.418900 1.439921 37
-83.677185 -74.441147 -0.519647 33
-35.979584 -31.844572 -1.063329 7
-11.732049 -10.186733 0.378369 0
-11.596627 -10.066369 0.116791 23
-11.582623 -10.054463 -0.156441 23
-12.524261 -10.896347 -0.587970 4
-10.702127 -9.268999 -0.542985 3
-9.286262 -8.004485 -0.498803 47
-8.224834 -7.056548 -0.471936 4
-7.351752 -6.276820 -0.444271 4
-6.668907 -5.667016 -0.429750 8
-6.067380 -5.129824 -0.408260 42
-5.593084 -4.706291 -0.400945 4
-5.169968 -4.328458 -0.389688 50
-4.840728 -4.034500 -0.394585 3
-84.020630 -74.220818 25.322535 21
-84.058502 -74.258064 23.290730 18
-84.130913 -74.325935 21.278893 28
-84.149872 -74.346375 19.264629 32
-30.827280 -27.049187 7.272392 18
-30.719206 -26.954336 6.521991 3
-33.076996 -29.047100 6.124737 3
-34.514866 -30.323925 5.512053 10
-34.546448 -30.353136 4.703593 9
-39.694786 -34.922485 4.250968 2
-84.366714 -74.563736 5.380250 30
-84.390778 -74.588638 3.409693 33
-84.413040 -74.611938 1.439096 32
-84.415550 -74.617706 -0.532187 28
-35.953461 -31.610788 -1.054450 20
-11.742687 -10.121665 0.380571 1
-11.609989 -10.004001 0.119203 22
-11.593095 -9.989130 -0.153121 22
-12.564227 -10.851413 -0.588504 3
-10.742994 -9.234653 -0.544691 3
-9.317322 -7.968929 -0.499450 52
-8.258890 -7.029156 -0.474036 5
-7.377552 -6.246538 -0.445040 5
-6.681170 -5.628083 -0.427247 12
-6.083908 -5.097590 -0.407351 42
-5.619991 -4.685470 -0.403841 4
-5.192850 -4.305970 -0.391744 58
-4.845502 -3.997306 -0.390147 4
-84.779999 -74.419571 25.470545 21
-84.861061 -74.494766 23.437151 23
-84.873428 -74.509384 21.397518 26
-84.920578 -74.554649 19.377022 29
-31.106291 -27.122612 7.308262 18
-20.347605 -17.639729 4.816668 1
-33.201916 -28.972233 6.129104 3
-34.826172 -30.405392 5.536800 10
-34.876080 -30.450659 4.724992 9
-85.117172 -74.753876 5.403404 28
-85.172821 -74.810562 1.438232 27
-85.469200 -75.075562 -0.552289 15
-36.059341 -31.504276 -1.055108 12
-11.739264 -10.054425 0.383860 1
-11.609222 -9.939913 0.122976 23
-11.723582 -10.040985 -0.167061 9
-12.601941 -10.816056 -0.589081 3
-10.784530 -9.212937 -0.547001 4
-9.348920 -7.946502 -0.500773 53
-8.284560 -7.007495 -0.474794 5
-7.400746 -6.227699 -0.445861 4
-6.696535 -5.606306 -0.426465 21
-6.103454 -5.082917 -0.408301 41
-5.632401 -4.667166 -0.402917 4
-5.204072 -4.289080 -0.390750 54
-4.858641 -3.984122 -0.390188 4
-85.544365 -74.616882 25.619377 21
-85.589111 -74.659897 23.563770 17
-85.653473 -74.720055 21.524448 24
-85.910385 -74.948860 19.534956 17
-31.365204 -27.176289 7.340245 18
-31.257338 -27.082972 6.581330 8
-33.347630 -28.915226 6.136384 3
-35.135323 -30.482582 5.561199 10
-35.185646 -30.528004 4.744448 8
-85.911804 -74.976532 5.428483 28
-86.207176 -75.239044 3.439057 18
-85.958946 -75.025246 1.437351 31
-85.979324 -75.046806 -0.559354 26
-36.108036 -31.346394 -1.051748 6
-11.744746 -9.994200 0.386311 2
-11.623362 -9.888064 0.125003 24
-11.767969 -10.015080 -0.168818 10
-12.639766 -10.779572 -0.589653 2
-10.820288 -9.184833 -0.548190 6
-9.374739 -7.917748 -0.500836 51
-8.313345 -6.987341 -0.476243 5
-7.424102 -6.207776 -0.446677 4
-6.717921 -5.588648 -0.427346 28
-6.126106 -5.069741 -0.410147 35
-5.650795 -4.652949 -0.403928 5
-5.218350 -4.273708 -0.390789 45
-4.874842 -3.972430 -0.391329 3
-86.355095 -74.848640 25.780651 19
-86.401993 -74.893356 23.711700 19
-86.426765 -74.918800 21.649294 23
-86.510094 -74.995186 19.610525 23
-31.597866 -27.205194 7.367232 16
-31.537947 -27.154278 6.612696 13
-33.484318 -28.849754 6.142416 3
-35.442295 -30.555510 5.585248 9
-35.514095 -30.619421 4.765564 9
-86.690598 -75.179192 5.452728 25
-86.709503 -75.199432 3.444489 28
-86.735138 -75.225533 1.436470 26
-87.035957 -75.491264 -0.579398 13
-36.095776 -31.136360 -1.044165 3
-11.758923 -9.942217 0.387918 1
-11.631209 -9.831306 0.127729 24
-11.653260 -9.850837 -0.148318 6
-11.635669 -9.835841 -0.419938 4
-10.873823 -9.172518 -0.552732 10
-9.406353 -7.894416 -0.502156 49
-8.347953 -6.972564 -0.479087 6
-7.447334 -6.188084 -0.447495 4
-6.724441 -5.558374 -0.424061 35
-6.139847 -5.049108 -0.409291 41
-5.663229 -4.633878 -0.403000 3
-5.238334 -4.263680 -0.392903 43
-4.888044 -3.958463 -0.391367 4
-87.120766 -75.035103 25.928642 20
-87.231918 -75.139359 21.781059 22
-87.254356 -75.162689 19.716038 21
-31.905891 -27.297855 7.408088 16
-31.852304 -27.252821 6.649401 10
-33.611858 -28.776058 6.147198 3
-35.734966 -30.613935 5.607560 10
-35.843430 -30.709244 4.786678 8
-87.477516 -75.383087 5.477242 32
-87.850571 -75.709702 3.464247 21
-87.531548 -75.437546 1.435571 24
-87.566933 -75.472031 -0.586904 34
-36.422550 -31.219448 -0.216803 3
-36.145985 -30.981634 -1.041016 10
-11.751760 -9.871991 0.391492 1
-11.641817 -9.777229 0.130105 24
-11.669971 -9.801983 -0.146296 10
-11.655349 -9.789721 -0.418058 28
-10.903419 -9.139245 -0.552806 19
-9.428942 -7.863231 -0.501593 45
-8.370625 -6.947351 -0.479145 9
-7.473471 -6.170901 -0.449078 4
-6.745612 -5.540944 -0.424943 49
-6.162344 -5.036114 -0.411139 40
-5.681453 -4.619880 -0.404012 3
-5.246611 -4.243477 -0.390869 44
-4.901192 -3.944477 -0.391405 4
-88.269913 -75.549454 24.067692 13
-88.003487 -75.324562 21.904507 11
-88.183350 -75.483147 19.859600 34
-32.256908 -27.424784 7.456709 18
-32.209789 -27.385674 6.692902 13
-33.724220 -28.688677 6.149899 3
-36.046524 -30.686201 5.631951 10
-36.161613 -30.786676 4.806681 8
-88.284782 -75.598198 5.502577 27
-88.537773 -75.819633 3.473743 45
-88.351395 -75.663345 1.434653 23
-36.497086 -31.084673 -0.215903 35
-36.228867 -30.855612 -1.040190 79
-11.771479 -9.825386 0.392537 1
-11.649159 -9.720649 0.132831 25
-11.683450 -9.750591 -0.143854 13
-11.686874 -9.753994 -0.418137 9
-10.932891 -9.105940 -0.552880 36
-9.463385 -7.842350 -0.503541 47
-8.402158 -6.929834 -0.481293 16
-7.496575 -6.151118 -0.449896 5
-6.763752 -5.520947 -0.424992 52
-6.175934 -5.015466 -0.410283 38
-5.699623 -4.605875 -0.405025 3
-5.269431 -4.235926 -0.394020 52
-4.920105 -3.935525 -0.393652 4
-88.794632 -75.516541 24.140226 16
-89.136604 -75.812637 22.111073 11
-32.551788 -27.500937 7.494786 19
-32.571430 -27.519167 6.736886 18
-33.890812 -28.647415 6.160091 4
-36.340698 -30.741320 5.654259 9
-36.492764 -30.872822 4.827789 8
-40.029755 -33.895638 4.227456 2
-89.088196 -75.803787 5.527630 30
-89.173515 -75.884750 1.433728 30
-89.169342 -75.885208 -0.614623 33
-36.577244 -30.954805 -0.215284 24
-36.311337 -30.729246 -1.039363 73
-11.769811 -9.760486 0.395550 1
-11.656285 -9.663993 0.135559 26
-11.850974 -9.830886 -0.162833 10
-11.685114 -9.689668 -0.412831 13
-10.953250 -9.064692 -0.551277 42
-9.491806 -7.816070 -0.504233 45
-8.418714 -6.899264 -0.479958 22
-7.516665 -6.128573 -0.449949 4
-6.787801 -5.505848 -0.426707 46
-6.198363 -5.002255 -0.412131 40
-5.720729 -4.594198 -0.407006 4
-5.280529 -4.218104 -0.393023 53
-4.941952 -3.928865 -0.397003 4
-89.604492 -75.722420 24.285088 22
-89.657799 -75.771851 22.175629 26
-89.932426 -76.009041 20.122370 15
-32.814259 -27.547237 7.526759 17
-32.879749 -27.604340 6.772126 18
-34.057491 -28.605310 6.170283 3
-36.644699 -30.802546 5.677606 9
-36.821777 -30.954527 4.848619 9
-89.939453 -76.043869 5.554742 29
-90.160759 -76.235817 3.498148 23
-89.979607 -76.086143 1.432808 29
-90.240562 -76.311775 -0.634771 12
-36.399464 -30.607815 -1.038959 66
-11.786102 -9.711161 0.396878 2
-11.675320 -9.617678 0.136885 27
-11.709833 -9.647568 -0.138968 19
-11.692143 -9.633132 -0.408993 27
-10.973459 -9.023382 -0.549674 47
-9.517143 -7.787105 -0.504297 44
-8.435160 -6.868632 -0.478623 31
-7.545663 -6.113560 -0.452297 5
-6.808838 -5.488093 -0.427588 51
-6.214827 -4.983878 -0.412176 32
-5.732944 -4.574868 -0.406078 4
-5.300397 -4.207731 -0.395137 40
-4.955012 -3.914612 -0.397041 4
-90.389687 -75.900261 24.423094 20
-90.818489 -76.265495 22.387030 29
-90.540787 -76.035095 20.197926 29
-33.071774 -27.584818 7.557630 17
-33.177376 -27.674915 6.805434 19
-21.919571 -18.183132 4.496731 1
-36.938049 -30.848289 5.699580 9
-37.170864 -31.045847 4.871125 8
-40.247932 -33.642151 4.227181 2
-90.778923 -76.261536 5.581181 28
-90.826904 -76.305641 3.507041 43
-90.813583 -76.298042 1.431892 31
-90.842888 -76.326401 -0.643774 29
-36.564999 -30.543795 -1.043806 36
-11.800735 -9.652074 0.398520 2
-11.689773 -9.558560 0.138946 28
-11.721459 -9.585403 -0.136068 31
-11.731160 -9.593701 -0.410010 7
-11.004583 -8.980693 -0.549706 48
-9.547498 -7.751146 -0.504946 37
-8.456693 -6.830591 -0.477939 37
-7.576927 -6.088056 -0.454598 7
-6.829228 -5.456912 -0.427588 51
-6.236702 -4.956682 -0.413072 23
-5.753612 -4.548779 -0.407037 4
-5.317037 -4.180101 -0.395121 44
-4.962008 -3.880230 -0.393708 3
-91.318192 -76.193352 24.596870 16
-91.523819 -76.369431 22.493137 42
-91.395134 -76.265427 20.323992 26
-33.390095 -27.674212 7.599584 17
-33.423447 -27.703285 6.830474 16
-34.327702 -28.462055 6.181941 1
-37.234325 -30.898705 5.721881 7
-37.529186 -31.147074 4.894443 9
-40.287041 -33.459457 4.222369 2
-91.607315 -76.469391 5.607038 28
-91.582100 -76.451981 3.517872 19
-96.191780 -80.319206 1.427995 16
-96.171188 -80.305870 -0.763523 38
-82.944801 -69.223167 -2.345254 11
-36.793381 -30.539427 -1.053121 25
-11.813620 -9.599953 0.400130 2
-11.699324 -9.504306 0.141325 28
-11.761600 -9.556690 -0.137404 6
-11.725666 -9.526740 -0.404213 12
-11.030624 -8.944137 -0.549219 49
-9.566654 -7.716700 -0.503753 33
-8.479004 -6.804709 -0.477996 46
-7.599908 -6.067522 -0.455414 12
-6.850207 -5.438778 -0.428468 50
-6.250117 -4.935452 -0.412213 17
-5.768722 -4.531629 -0.407077 4
-5.328020 -4.161900 -0.394122 52
-4.980889 -3.870626 -0.395953 4
-92.176949 -76.421059 24.752369 21
-92.197380 -76.441971 22.591616 26
-92.254837 -76.493668 20.450674 27
-33.697113 -27.751743 7.639317 14
-33.734093 -27.783731 6.865708 15
-34.466877 -28.394999 6.188386 6
-22.473114 -18.410530 4.039840 1
-37.876225 -31.236145 4.916649 8
-40.466602 -33.394432 4.227095 2
-96.935303 -80.417847 5.834324 29
-96.958298 -80.440979 3.630604 26
-97.007042 -80.485580 1.427033 32
-97.029305 -80.508118 -0.778266 30
-37.040363 -30.549887 -1.063709 16
-11.823085 -9.545913 0.402019 1
-11.717691 -9.458356 0.142650 29
-11.764859 -9.497887 -0.133701 9
-11.741076 -9.478315 -0.401844 15
-11.053360 -8.905589 -0.548176 51
-9.594649 -7.690414 -0.504447 24
-8.501095 -6.779375 -0.478055 43
-7.625707 -6.050036 -0.456999 23
-6.867991 -5.418682 -0.428518 51
-6.275292 -4.924783 -0.414965 12
-5.792581 -4.522501 -0.410030 4
-5.344732 -4.149235 -0.395201 37
-4.987803 -3.851715 -0.393784 3
-34.041443 -27.858564 7.685699 2
-34.112740 -27.918818 6.911616 16
-22.650757 -18.438459 4.572047 2
-37.804188 -30.975185 5.763703 7
-27.567524 -22.507692 3.978754 2
-40.501354 -33.209572 4.222073 2
-97.853577 -80.664444 5.863441 40
-97.846092 -80.662331 3.643967 52
-97.799507 -80.627853 1.426078 65
-37.358433 -30.618200 -1.079161 7
-11.890609 -9.540780 0.398566 3
-11.726555 -9.405295 0.145025 29
-11.767743 -9.439691 -0.130000 4
-11.753114 -9.427889 -0.398987 6
-11.091092 -8.880148 -0.549929 51
-9.622450 -7.664562 -0.505142 16
-8.526017 -6.757011 -0.478813 43
-7.636224 -6.020461 -0.454759 34
-6.891616 -5.404049 -0.430237 50
-6.291330 -4.907082 -0.415014 7
-5.804357 -4.503901 -0.409106 4
-5.355339 -4.132112 -0.394207 42
-5.003401 -3.840687 -0.394930 4
-36.763233 -29.909016 11.593012 12
-34.446728 -28.013166 6.950243 18
-34.502075 -28.060007 6.168404 6
-38.074738 -30.998051 5.782879 6
-22.845724 -18.480764 3.547873 8
-40.745354 -33.196514 4.231153 3
-98.073532 -80.328949 5.861328 56
-97.994957 -80.268478 3.641065 59
-97.908073 -80.201157 1.425575 65
-97.834602 -80.144875 -0.786432 57
-11.987062 -9.557245 0.665603 0
-11.943063 -9.521432 0.396524 3
-11.744689 -9.358654 0.146353 28
-11.798283 -9.403101 -0.130075 3
-11.774406 -9.383834 -0.397594 3
-11.116795 -8.843284 -0.549441 52
-9.650438 -7.637399 -0.505833 10
-8.554180 -6.735850 -0.480262 47
-7.655982 -5.997150 -0.454810 45
-6.909429 -5.383137 -0.430284 47
-6.313591 -4.893068 -0.416860 5
-5.816327 -4.484057 -0.408177 3
-5.378077 -4.123568 -0.397357 33
-5.016264 -3.825943 -0.394966 4
-36.800507 -29.746288 11.577025 10
-34.747818 -28.078068 6.983527 18
-34.769821 -28.097458 6.192324 18
-38.321114 -30.999361 5.799283 6
-38.972271 -31.532785 4.987680 8
-98.211845 -79.927216 5.855641 29
-23.549864 -18.938879 2.006649 1
-23.518688 -18.914335 1.474721 3
-23.483431 -18.886457 0.944262 3
-23.456505 -18.865385 0.414657 3
-11.962285 -9.474515 0.669333 1
-12.103608 -9.590427 0.384642 3
-11.759515 -9.309685 0.148031 29
-11.767058 -9.316281 -0.121747 4
-11.860042 -9.392709 -0.406481 2
-11.151525 -8.814074 -0.550631 53
-9.696653 -7.625348 -0.510290 7
-8.579194 -6.712296 -0.481016 46
-7.672579 -5.971502 -0.454097 58
-6.927127 -5.362380 -0.430331 50
-6.335775 -4.879174 -0.418708 5
-5.834187 -4.469308 -0.409188 4
-5.391790 -4.107798 -0.397396 32
-5.026055 -3.808935 -0.393898 4
-35.012646 -28.111383 7.010984 12
-35.031952 -28.128540 6.215410 9
-23.647287 -18.891176 4.144632 2
-23.623379 -18.872761 3.606582 3
-23.589020 -18.845863 3.070187 4
-23.593920 -18.850826 2.538023 10
-23.541916 -18.809603 2.005014 7
-23.519957 -18.792765 1.474616 22
-23.512554 -18.787746 0.944836 47
-23.491770 -18.771862 0.415645 82
-11.977417 -9.424773 0.670314 2
-12.146985 -9.562945 0.383441 1
-11.774141 -9.260721 0.149710 28
-11.778631 -9.264864 -0.119302 4
-13.120014 -10.354617 -0.601885 3
-11.180025 -8.779751 -0.550703 52
-9.727547 -7.600638 -0.511609 6
-8.601080 -6.686179 -0.481073 48
-7.692130 -5.948293 -0.454149 62
-6.947793 -5.344039 -0.431212 50
-6.354901 -4.862742 -0.419654 4
-5.855014 -4.456947 -0.411169 4
-5.399451 -4.087120 -0.395360 32
-5.047715 -3.801609 -0.397249 4
-23.785810 -18.877792 5.233757 1
-23.677677 -18.791666 4.677994 8
-23.661026 -18.779291 4.139290 10
-23.640087 -18.763456 3.602561 12
-23.621136 -18.749224 3.068178 21
-23.635349 -18.761736 2.537054 131
-23.608099 -18.740808 2.005006 6
-23.595415 -18.731630 1.474461 5
-23.581757 -18.721664 0.944476 4
-23.576460 -18.718447 0.414367 3
-11.989243 -9.372509 0.671507 2
-12.162357 -9.512725 0.384770 3
-11.788573 -9.211747 0.151389 28
-11.786899 -9.210957 -0.116435 4
-11.898953 -9.301929 -0.403206 7
-11.211499 -8.747809 -0.551334 54
-9.764526 -7.580759 -0.514184 5
-8.629014 -6.664924 -0.482523 48
-7.711606 -5.925007 -0.454200 70
-6.968406 -5.325608 -0.432094 50
-6.373981 -4.846224 -0.420600 4
-5.872797 -4.442049 -0.412180 4
-5.413041 -4.071274 -0.395399 21
-5.057406 -3.784511 -0.396181 4
-35.792091 -28.371330 7.104727 16
-23.747267 -18.723246 4.679105 4
-23.733788 -18.713026 4.140542 3
-23.731588 -18.711845 3.605197 3
-23.753237 -18.729769 3.072813 2
-23.708357 -18.694386 2.537474 255
-23.759157 -18.735672 2.006841 5
-23.746542 -18.726145 1.474274 4
-23.707956 -18.695803 0.942842 3
-54.200188 -43.134342 -0.974299 16
-12.011415 -9.322299 0.672091 1
-12.166387 -9.446606 0.387251 3
-11.798003 -9.151419 0.153798 27
-11.802658 -9.155239 -0.114378 3
-11.908922 -9.240520 -0.399822 10
-11.244591 -8.708022 -0.551929 56
-9.800201 -7.550060 -0.516094 4
-8.655731 -6.632449 -0.483238 50
-7.742208 -5.899924 -0.456506 67
-6.994133 -5.299992 -0.433765 55
-6.398268 -4.822060 -0.422403 5
-5.886796 -4.411759 -0.411204 6
-5.425980 -4.042044 -0.394351 22
-5.078546 -3.763229 -0.398376 4
-36.912605 -29.070784 11.504796 5
-36.895519 -29.058430 10.642319 23
-36.878517 -29.046131 9.786404 21
-36.852531 -29.026678 8.934635 14
-36.848675 -29.024820 8.092630 5
-36.112370 -28.439995 7.140436 16
-36.021469 -28.368814 6.311297 17
-39.058624 -30.787569 5.836827 5
-40.491192 -31.929255 5.086154 6
-23.772715 -18.621195 3.069983 4
-23.821507 -18.660681 2.539675 150
-23.722261 -18.582310 2.004606 2
-23.734625 -18.592796 1.474186 12
-23.695944 -18.562637 0.944359 8
-54.718246 -43.266407 -0.991911 14
-12.041949 -9.283338 0.672024 0
-12.184813 -9.397269 0.388307 3
-11.815512 -9.103312 0.155135 28
-11.817074 -9.104710 -0.112344 4
-11.923626 -9.189736 -0.397442 10
-11.279334 -8.676687 -0.553111 56
-9.828197 -7.520853 -0.516778 5
-8.680831 -6.606893 -0.483983 48
-7.761918 -5.874844 -0.456551 67
-7.015010 -5.279759 -0.434639 52
-6.414576 -4.801321 -0.422439 4
-5.901806 -4.392686 -0.411238 3
-5.442840 -4.026885 -0.395419 16
-5.097512 -3.751605 -0.400615 5
-36.414032 -28.495436 7.173216 17
-36.335789 -28.434801 6.341024 18
-39.224606 -30.720762 5.844208 5
-40.867401 -32.021450 5.110269 6
-41.119843 -32.222553 4.213099 7
-101.448143 -79.948700 3.679584 16
-55.271275 -43.426979 -1.011104 14
-12.295979 -9.426492 0.380908 0
-11.825640 -9.054543 0.157153 29
-11.827226 -9.056018 -0.109909 3
-11.934070 -9.140795 -0.394591 10
-11.309941 -8.647068 -0.553754 54
-9.861357 -7.500751 -0.518737 4
-8.701819 -6.583103 -0.484052 47
-7.783679 -5.856439 -0.457379 69
-7.031814 -5.261324 -0.434698 56
-6.432924 -4.787251 -0.423397 3
-5.921891 -4.382685 -0.413231 4
-5.452653 -4.011168 -0.394433 12
-5.106464 -3.737043 -0.399559 7
-36.779186 -28.596682 7.215706 15
-36.685638 -28.524496 6.375331 16
-39.397171 -30.656506 5.852289 4
-24.760256 -19.155741 3.679795 2
-41.416615 -32.246380 4.225698 9
-102.008385 -79.868042 5.952681 41
-102.008018 -79.871796 3.685608 28
-102.064598 -79.920311 1.419759 26
-55.813911 -43.571644 -1.029722 14
-12.775156 -9.740352 0.340623 2
-11.839414 -9.004980 0.158836 29
-11.844148 -9.008984 -0.108299 4
-11.938786 -9.083685 -0.390746 9
-11.341178 -8.614057 -0.554381 49
-9.879663 -7.465022 -0.517541 4
-8.726543 -6.558397 -0.484803 47
-7.803016 -5.832242 -0.457428 66
-7.052349 -5.241968 -0.435576 49
-6.448886 -4.767417 -0.423438 5
-5.933522 -4.362117 -0.412299 4
-5.475267 -4.001698 -0.397581 7
-5.122119 -3.723930 -0.400698 7
-37.204796 -28.742331 7.267415 18
-37.039543 -28.614712 6.410051 15
-39.550873 -30.576746 5.858291 4
-41.670601 -32.233242 5.162656 8
-41.761177 -32.305534 4.241401 7
-56.323147 -43.687195 -1.046788 8
-13.069357 -9.905727 0.608751 0
-12.891480 -9.767179 0.332950 2
-11.852818 -8.956225 0.160515 30
-11.857578 -8.960291 -0.106272 4
-11.946213 -9.029886 -0.387395 8
-11.369019 -8.579303 -0.554454 41
-9.916340 -7.444650 -0.520117 3
-8.751019 -6.534405 -0.485557 48
-7.825193 -5.811205 -0.458246 63
-7.072652 -5.223342 -0.436458 57
-6.464607 -4.748337 -0.423483 4
-5.947960 -4.344714 -0.412341 4
-5.497694 -3.992931 -0.400732 6
-5.131504 -3.706827 -0.399631 11
-37.553257 -28.824760 7.306988 16
-37.469826 -28.761509 6.454750 12
-39.682423 -30.479235 5.861867 4
-42.091148 -32.349281 5.190367 8
-42.166481 -32.409367 4.261038 7
-104.478004 -80.752525 6.037061 14
-56.940483 -43.879719 0.191352 4
-42.122967 -32.384045 -0.403303 3
-13.082500 -9.849988 0.609942 0
-12.998766 -9.785460 0.326123 2
-11.863007 -8.904459 0.162548 30
-11.867799 -8.908590 -0.103823 4
-11.959813 -8.980425 -0.385019 6
-11.403131 -8.548741 -0.555641 35
-9.943748 -7.416281 -0.520806 3
-8.775551 -6.509752 -0.486309 46
-7.850536 -5.791921 -0.459826 65
-7.093028 -5.204066 -0.437337 61
-6.486546 -4.733411 -0.425329 4
-5.962466 -4.326691 -0.412380 3
-5.508034 -3.974011 -0.399732 5
-5.150058 -3.696201 -0.401875 13
-37.864853 -28.876205 7.340735 14
-37.948650 -28.942314 6.505684 13
-25.505768 -19.354620 4.295218 1
-42.493858 -32.448383 5.216414 8
-42.591824 -32.525604 4.281915 7
-57.440105 -43.979244 0.182802 7
-57.500786 -44.028355 -1.087878 14
-13.098516 -9.797021 0.610920 0
-13.096740 -9.796171 0.320137 5
-11.882381 -8.860335 0.163528 30
-11.877740 -8.857232 -0.101374 4
-11.966861 -8.926437 -0.381665 6
-11.424546 -8.508694 -0.554594 27
-9.971000 -7.388131 -0.521497 3
-8.803059 -6.487731 -0.487758 47
-7.872652 -5.770454 -0.460643 65
-7.113277 -5.185029 -0.438218 53
-6.499125 -4.711570 -0.424470 4
-5.986061 -4.316046 -0.415331 4
-5.533526 -3.967181 -0.403920 4
-5.159389 -3.678766 -0.400807 9
-38.227589 -28.964592 7.382244 15
-38.337376 -29.050261 6.544553 16
-40.061913 -30.372286 5.881835 3
-42.900776 -32.547691 5.242735 7
-42.992943 -32.620060 4.301130 7
-72.498634 -55.225857 -0.156147 18
-72.447464 -55.189674 -1.750077 18
-13.111175 -9.741536 0.612111 0
-13.182256 -9.796570 0.315276 3
-11.892124 -8.808823 0.165561 30
-11.890650 -8.808233 -0.099345 4
-11.973702 -8.872409 -0.378311 4
-11.455269 -8.475737 -0.555224 19
-9.998189 -7.359796 -0.522187 3
-8.830529 -6.465516 -0.489208 45
-7.894725 -5.748819 -0.461459 57
-7.133491 -5.165832 -0.439098 56
-6.520923 -4.696722 -0.426317 4
-6.000420 -4.298128 -0.415371 6
-5.543714 -3.948393 -0.402920 4
-5.165623 -3.658885 -0.398633 4
-39.487656 -29.730116 8.443164 37
-38.623127 -29.073736 7.428607 11
-38.708542 -29.139854 6.580932 15
-40.193554 -30.270641 5.885420 4
-43.328377 -32.656612 5.270725 5
-43.437084 -32.740650 4.323049 7
-107.635918 -81.594238 1.413667 19
-107.520927 -81.510696 -0.945744 28
-60.823570 -45.978951 -1.224301 15
-13.127859 -9.683644 0.613112 0
-13.237320 -9.767066 0.313252 0
-11.909271 -8.756410 0.166918 31
-11.911069 -8.757851 -0.098128 4
-11.978636 -8.809358 -0.374436 3
-11.478013 -8.428354 -0.554144 13
-10.026969 -7.323790 -0.522843 3
-8.847181 -6.425620 -0.487833 40
-7.909239 -5.711483 -0.459940 52
-7.152513 -5.135249 -0.439104 63
-6.541663 -4.670028 -0.427220 4
-6.019985 -4.272664 -0.416336 6
-5.562255 -3.923956 -0.403949 5
-5.180272 -3.632898 -0.398620 4
-39.903172 -29.850206 7.610332 28
-39.035744 -29.195948 6.611476 13
-40.372078 -30.207092 5.894188 4
-43.718224 -32.737339 5.295376 7
-43.875286 -32.857452 4.344534 7
-108.434517 -81.661491 3.786385 38
-108.419197 -81.653931 1.412662 57
-61.757591 -46.382286 0.093630 5
-60.802868 -45.662628 -1.217280 37
-13.262449 -9.721396 0.313733 0
-11.918514 -8.705367 0.168949 33
-11.913992 -8.702084 -0.094839 6
-11.981758 -8.753470 -0.370593 3
-11.521056 -8.405202 -0.557012 10
-10.057044 -7.298079 -0.524163 4
-8.871269 -6.401287 -0.488588 40
-7.934198 -5.692519 -0.461523 51
-7.166272 -5.111624 -0.438318 56
-6.560178 -4.653094 -0.428167 4
-6.046515 -4.264441 -0.420258 8
-5.578383 -3.910197 -0.405026 4
-5.195460 -3.620386 -0.399763 4
-40.004181 -29.729387 7.611071 30
-39.491032 -29.345442 6.658653 13
-40.582550 -30.166273 5.906421 3
-44.131420 -32.832325 5.321964 6
-44.314720 -32.971439 4.366018 6
-109.369522 -81.829773 3.800066 17
-109.670158 -82.064064 -0.983923 22
-76.400993 -57.079582 -1.903736 7
-13.271490 -9.663565 0.315621 0
-11.927576 -8.654235 0.170981 33
-11.932604 -8.658213 -0.093652 6
-11.987844 -8.699920 -0.367239 3
-11.564089 -8.381743 -0.559878 6
-10.080761 -7.267387 -0.524227 3
-8.892163 -6.374382 -0.488645 39
-7.965412 -5.678052 -0.464637 52
-7.192481 -5.097247 -0.440868 49
-6.578671 -4.635971 -0.429113 4
-6.048254 -4.237323 -0.416420 11
-5.588320 -3.891614 -0.404028 4
-5.204492 -3.603076 -0.398695 3
-40.314880 -29.764900 7.643831 3
-39.925304 -29.475714 6.702914 14
-26.920633 -19.776619 4.414644 1
-44.555233 -32.932198 5.349379 6
-44.764904 -33.090160 4.388119 7
-54.613186 -40.441132 2.641256 18
-111.006348 -82.519234 1.409897 25
-110.793907 -82.364922 -1.004034 24
-74.930977 -55.608158 -1.831089 28
-12.161783 -8.769968 0.682936 1
-12.052504 -8.688682 0.425550 3
-11.949356 -8.611966 0.171613 32
-11.951208 -8.613613 -0.092461 7
-12.006584 -8.655215 -0.365841 2
-11.613583 -8.362136 -0.563860 4
-10.107697 -7.238281 -0.524915 3
-8.919435 -6.351421 -0.490092 32
-7.987322 -5.655701 -0.465451 55
-7.203142 -5.070354 -0.439244 41
-6.591022 -4.613415 -0.428252 4
-6.071794 -4.225790 -0.419368 15
-5.601437 -3.874618 -0.404064 3
-5.222853 -3.591945 -0.400939 4
-40.306419 -29.563435 6.740104 15
-40.795765 -29.927505 5.908374 4
-44.938400 -32.999001 5.373192 5
-45.232281 -33.218422 4.411250 7
-54.667046 -40.214928 2.639387 22
-75.969391 -56.007130 1.434996 20
-75.875298 -55.940239 -0.214676 17
-60.998947 -44.914928 -1.207982 255
-12.167732 -8.715621 0.684344 1
-12.071032 -8.644258 0.426320 3
-11.961243 -8.563186 0.173295 30
-11.953527 -8.557795 -0.089170 6
-12.009074 -8.599316 -0.361996 4
-11.659739 -8.340602 -0.567286 3
-10.140748 -7.214444 -0.526863 3
-8.933848 -6.319627 -0.488755 27
-8.005870 -5.631587 -0.465503 56
-7.222985 -5.051095 -0.440126 39
-6.612539 -4.598450 -0.430101 4
-6.082707 -4.205560 -0.418440 21
-5.611250 -3.855936 -0.403065 4
-5.225608 -3.569940 -0.397661 4
-40.646862 -29.618185 6.771886 12
-27.547058 -19.975773 4.468350 1
-45.316036 -33.058781 5.396451 6
-45.700943 -33.343868 4.434379 7
-54.726490 -39.993309 2.637656 22
-54.926510 -40.142666 1.450118 13
-76.022659 -55.680485 -0.214463 17
-75.995361 -55.663280 -1.863472 21
-12.179934 -8.665854 0.685330 1
-12.089439 -8.599597 0.427093 3
-11.972980 -8.514209 0.174978 33
-11.974872 -8.515995 -0.088401 6
-12.017762 -8.547988 -0.359129 4
-11.705914 -8.318651 -0.570711 3
-10.161068 -7.180890 -0.526297 3
-8.967216 -6.301615 -0.491599 19
-8.024384 -5.607205 -0.465553 50
-7.242817 -5.031553 -0.441006 25
-6.627790 -4.578565 -0.430144 4
-6.081094 -4.175887 -0.413630 28
-5.633479 -3.846189 -0.406216 4
-5.249977 -3.563711 -0.402117 3
-41.129345 -29.774416 6.821959 12
-41.139511 -29.783440 5.924525 4
-45.720257 -33.135357 5.421919 5
-46.180511 -33.473766 4.458124 8
-54.781868 -39.769363 2.635858 20
-54.917759 -39.870895 1.449903 23
-55.001408 -39.934216 0.259168 13
-54.861736 -39.834164 -0.926152 103
-12.242923 -8.653888 0.416046 1
-11.990952 -8.469972 0.175960 7
-11.983222 -8.464771 -0.085950 6
-12.029444 -8.499060 -0.356753 3
-11.739274 -8.287160 -0.571900 3
-10.197207 -7.158969 -0.528872 3
-8.987835 -6.274172 -0.491654 14
-8.049150 -5.587423 -0.467135 55
-7.259430 -5.009648 -0.441052 18
-6.649260 -4.563256 -0.431991 4
-6.098131 -4.160043 -0.414640 32
-5.640105 -3.824953 -0.404179 4
-5.249532 -3.539218 -0.397733 4
-41.603554 -29.920897 6.870780 14
-33.957554 -24.367397 5.142842 3
-46.144775 -33.223793 5.449045 4
-46.654884 -33.596287 4.481452 7
-23.809229 -16.998007 1.987588 1
-54.972565 -39.646614 1.449641 19
-55.007874 -39.674454 0.261525 22
-54.948776 -39.633686 -0.924763 13
-12.448522 -8.744760 0.400496 1
-12.005557 -8.423287 0.177293 3
-11.994601 -8.415844 -0.083919 6
-12.037738 -8.447729 -0.353885 3
-11.772563 -8.255464 -0.573088 3
-10.226932 -7.132168 -0.530190 3
-9.005197 -6.244270 -0.491013 9
-8.070708 -5.565156 -0.467951 55
-7.285480 -4.994515 -0.443600 12
-6.661254 -4.540904 -0.431132 4
-6.115139 -4.144056 -0.415650 31
-5.659160 -3.812726 -0.406291 4
-5.273866 -3.532778 -0.402188 4
-41.988953 -29.998590 6.907961 7
-33.834961 -24.114607 5.121190 1
-46.450977 -33.221668 5.465940 5
-47.137451 -33.718563 4.505201 7
-23.827961 -16.893480 2.501063 9
-23.828539 -16.894394 1.986724 1
-55.037006 -39.425854 1.449389 20
-55.059528 -39.443825 0.262890 30
-54.987457 -39.393497 -0.921223 161
-12.180370 -8.486126 0.426337 0
-12.017941 -8.368887 0.179001 4
-12.010301 -8.363427 -0.082282 6
-12.053651 -8.394796 -0.351969 2
-11.810467 -8.219220 -0.574805 3
-10.254971 -7.095743 -0.530847 3
-9.040111 -6.218202 -0.493821 6
-8.090810 -5.532403 -0.467964 50
-7.310223 -4.968416 -0.445275 7
-6.681479 -4.514070 -0.432036 4
-6.134196 -4.118532 -0.416617 45
-5.683514 -3.792752 -0.409397 4
